ply
format ascii 1.0
comment VCGLIB generated
obj_info Generated by CloudCompare!
element vertex 1288
property float x
property float y
property float z
property uchar red
property uchar green
property uchar blue
end_header
1.920425 0.462079 -1.319046 255 0 0 
1.915940 0.460954 -1.310832 255 0 0 
1.918135 0.455490 -1.308092 255 0 0 
1.919570 0.455308 -1.301526 255 0 0 
1.918688 0.450108 -1.297348 255 0 0 
1.911862 0.442724 -1.288865 255 0 0 
1.909894 0.441641 -1.281138 255 0 0 
1.905551 0.273407 -1.070459 255 0 0 
1.912957 0.221291 -1.008257 255 0 0 
1.920562 0.204835 -0.988091 255 0 0 
1.923245 0.189445 -0.970280 255 0 0 
1.908699 0.187384 -0.962266 255 0 0 
1.949651 0.042268 -0.808662 255 0 0 
1.974342 -0.056354 -0.698363 255 0 0 
1.934598 0.593994 -1.493532 255 0 0 
1.922284 0.585205 -1.477458 255 0 0 
1.918571 0.574436 -1.461670 255 0 0 
1.918975 0.569607 -1.459001 255 0 0 
1.909091 0.551211 -1.432552 255 0 0 
2.027455 0.531871 -1.476300 255 0 0 
1.924933 0.523408 -1.407646 255 0 0 
1.913561 0.502912 -1.367138 255 0 0 
1.918492 0.496673 -1.366439 255 0 0 
1.919669 0.490979 -1.364086 255 0 0 
1.921265 0.490465 -1.357831 255 0 0 
1.922103 0.484526 -1.354807 255 0 0 
1.922038 0.484168 -1.347937 255 0 0 
1.920752 0.475408 -1.338211 255 0 0 
1.921774 0.469541 -1.335564 255 0 0 
1.921567 0.468829 -1.328706 255 0 0 
1.919574 0.461125 -1.326644 255 0 0 
1.918259 0.457612 -1.320828 255 0 0 
1.917578 0.455838 -1.314509 255 0 0 
1.918228 0.450193 -1.311829 255 0 0 
1.918541 0.451238 -1.311185 255 0 0 
1.919479 0.450109 -1.304899 255 0 0 
1.912762 0.443657 -1.295506 255 0 0 
1.918558 0.444944 -1.301680 255 0 0 
1.910384 0.437722 -1.292321 255 0 0 
1.899048 0.352716 -1.177511 255 0 0 
1.900778 0.352182 -1.171817 255 0 0 
1.905176 0.277118 -1.081522 255 0 0 
1.901146 0.277002 -1.076808 255 0 0 
1.909324 0.268796 -1.074658 255 0 0 
1.909043 0.228817 -1.022195 255 0 0 
1.928516 0.144150 -0.926356 255 0 0 
1.931199 0.117544 -0.900252 255 0 0 
1.940840 0.038308 -0.805418 255 0 0 
1.965408 -0.028514 -0.738456 255 0 0 
1.967056 -0.031685 -0.732685 255 0 0 
1.938419 0.587911 -1.501359 255 0 0 
1.916557 0.573757 -1.474400 255 0 0 
1.915242 0.573334 -1.466860 255 0 0 
1.916722 0.568503 -1.464274 255 0 0 
1.911901 0.555337 -1.447582 255 0 0 
1.908944 0.550344 -1.440787 255 0 0 
1.917400 0.554000 -1.443405 255 0 0 
2.010593 0.523622 -1.457855 255 0 0 
1.943023 0.510936 -1.411324 255 0 0 
1.919941 0.498317 -1.375149 255 0 0 
1.916885 0.497246 -1.372700 255 0 0 
1.917636 0.491529 -1.370065 255 0 0 
1.920853 0.485029 -1.361366 255 0 0 
1.921473 0.478737 -1.351639 255 0 0 
1.923054 0.479401 -1.359291 255 0 0 
1.921221 0.472276 -1.347445 255 0 0 
1.920295 0.460129 -1.334805 255 0 0 
1.917696 0.451675 -1.317746 255 0 0 
1.917215 0.445816 -1.314737 255 0 0 
1.917556 0.445214 -1.307933 255 0 0 
1.899385 0.315982 -1.134330 255 0 0 
1.936919 0.116294 -0.907086 255 0 0 
1.926511 0.113708 -0.902268 255 0 0 
1.925570 0.113899 -0.901977 255 0 0 
1.925737 0.111267 -0.897566 255 0 0 
1.937657 0.033268 -0.808238 255 0 0 
1.983158 -0.091597 -0.677509 255 0 0 
1.936944 0.587976 -1.509218 255 0 0 
1.921387 0.577464 -1.488746 255 0 0 
1.915392 0.567466 -1.471083 255 0 0 
1.917623 0.563269 -1.468181 255 0 0 
1.916036 0.561317 -1.468110 255 0 0 
1.912871 0.546504 -1.441812 255 0 0 
1.904504 0.543136 -1.439442 255 0 0 
1.923787 0.517123 -1.412211 255 0 0 
1.911104 0.512175 -1.404218 255 0 0 
2.001772 0.516449 -1.455785 255 0 0 
1.915371 0.491980 -1.375925 255 0 0 
1.915820 0.486157 -1.373181 255 0 0 
1.917723 0.485619 -1.367091 255 0 0 
1.920033 0.479861 -1.364776 255 0 0 
1.919139 0.474665 -1.361681 255 0 0 
1.924153 0.474109 -1.356870 255 0 0 
1.921925 0.473756 -1.355959 255 0 0 
1.914642 0.466194 -1.349121 255 0 0 
1.919459 0.466144 -1.343996 255 0 0 
1.920347 0.460549 -1.341597 255 0 0 
1.917149 0.451985 -1.324551 255 0 0 
1.915537 0.452394 -1.323914 255 0 0 
1.919333 0.453719 -1.331799 255 0 0 
1.919329 0.452761 -1.332215 255 0 0 
1.912814 0.446787 -1.320166 255 0 0 
1.915405 0.439850 -1.311252 255 0 0 
1.915301 0.435335 -1.306643 255 0 0 
1.910326 0.432142 -1.296191 255 0 0 
1.911855 0.432488 -1.303552 255 0 0 
1.906747 0.321786 -1.157913 255 0 0 
1.902409 0.292369 -1.116725 255 0 0 
1.912087 0.229079 -1.049771 255 0 0 
1.909635 0.219890 -1.031509 255 0 0 
1.930761 0.110157 -0.904514 255 0 0 
1.948479 0.024203 -0.809628 255 0 0 
1.943242 0.019990 -0.805060 255 0 0 
1.977790 -0.095154 -0.678806 255 0 0 
1.936327 0.580355 -1.508569 255 0 0 
1.917375 0.569430 -1.486748 255 0 0 
1.915103 0.567770 -1.478311 255 0 0 
1.915425 0.555364 -1.472216 255 0 0 
1.909766 0.557428 -1.465799 255 0 0 
1.906779 0.545166 -1.447709 255 0 0 
1.917863 0.481751 -1.379621 255 0 0 
1.916991 0.480487 -1.370903 255 0 0 
1.916831 0.474568 -1.366948 255 0 0 
1.918931 0.469598 -1.365947 255 0 0 
1.924911 0.468480 -1.361770 255 0 0 
1.918302 0.461069 -1.347307 255 0 0 
1.919360 0.454568 -1.345614 255 0 0 
1.919214 0.454088 -1.338650 255 0 0 
1.917789 0.447613 -1.335500 255 0 0 
1.915312 0.446598 -1.328046 255 0 0 
1.915153 0.440061 -1.318224 255 0 0 
1.913747 0.441034 -1.324672 255 0 0 
1.916256 0.434014 -1.315565 255 0 0 
1.911766 0.426952 -1.308681 255 0 0 
1.907801 0.411685 -1.286268 255 0 0 
1.907217 0.411874 -1.279264 255 0 0 
1.897890 0.387137 -1.247625 255 0 0 
1.894179 0.367480 -1.217304 255 0 0 
1.952725 0.101846 -0.922500 255 0 0 
1.946771 0.101852 -0.914897 255 0 0 
1.930514 0.064814 -0.860303 255 0 0 
1.953373 0.024788 -0.821878 255 0 0 
1.952143 0.017699 -0.808313 255 0 0 
1.974265 -0.099147 -0.680729 255 0 0 
1.931945 0.573871 -1.514794 255 0 0 
1.919599 0.571074 -1.495257 255 0 0 
1.910078 0.555472 -1.478349 255 0 0 
1.913731 0.540509 -1.462013 255 0 0 
1.914861 0.475260 -1.374921 255 0 0 
1.914999 0.468669 -1.369904 255 0 0 
1.912811 0.459741 -1.354133 255 0 0 
1.915452 0.453866 -1.351619 255 0 0 
1.920606 0.448919 -1.350516 255 0 0 
1.917119 0.448092 -1.342449 255 0 0 
1.911135 0.441144 -1.331203 255 0 0 
1.912184 0.435337 -1.321070 255 0 0 
1.915718 0.428314 -1.319318 255 0 0 
1.907515 0.418195 -1.295706 255 0 0 
1.905191 0.406433 -1.280622 255 0 0 
1.899759 0.394905 -1.267410 255 0 0 
1.891948 0.368120 -1.231486 255 0 0 
1.900204 0.356430 -1.221174 255 0 0 
1.901322 0.315085 -1.167180 255 0 0 
1.898193 0.240218 -1.073832 255 0 0 
1.949206 0.019880 -0.824738 255 0 0 
1.967812 -0.071276 -0.720678 255 0 0 
1.919032 0.564734 -1.502124 255 0 0 
1.916093 0.563069 -1.493361 255 0 0 
1.912077 0.556231 -1.485678 255 0 0 
1.909995 0.549900 -1.482267 255 0 0 
1.911380 0.549345 -1.475624 255 0 0 
1.916358 0.534317 -1.461676 255 0 0 
2.029472 0.515926 -1.507573 255 0 0 
2.024973 0.510442 -1.499992 255 0 0 
2.016013 0.512253 -1.488453 255 0 0 
1.904177 0.477041 -1.384399 255 0 0 
1.910301 0.476915 -1.380889 255 0 0 
1.914691 0.471242 -1.379781 255 0 0 
1.913705 0.465259 -1.375267 255 0 0 
1.916085 0.461953 -1.368638 255 0 0 
1.912869 0.455676 -1.364126 255 0 0 
1.910623 0.455474 -1.356106 255 0 0 
1.916662 0.449473 -1.355903 255 0 0 
1.915173 0.441845 -1.346078 255 0 0 
1.914224 0.441246 -1.338863 255 0 0 
1.912784 0.435112 -1.335724 255 0 0 
1.914240 0.428501 -1.326405 255 0 0 
1.914642 0.422331 -1.323534 255 0 0 
1.893043 0.380890 -1.250203 255 0 0 
1.895193 0.361994 -1.227558 255 0 0 
1.895143 0.362089 -1.227640 255 0 0 
1.899932 0.356945 -1.226680 255 0 0 
1.899315 0.357057 -1.226741 255 0 0 
1.888233 0.351182 -1.217902 255 0 0 
1.901396 0.278209 -1.133530 255 0 0 
1.900987 0.274027 -1.121329 255 0 0 
1.908044 0.220632 -1.063577 255 0 0 
1.905327 0.194542 -1.030238 255 0 0 
1.926540 0.079979 -0.895204 255 0 0 
1.934784 0.046965 -0.857934 255 0 0 
1.941043 0.041458 -0.856580 255 0 0 
1.941043 0.041458 -0.856580 255 0 0 
1.972376 -0.078404 -0.725237 255 0 0 
1.977368 -0.106051 -0.686825 255 0 0 
1.929706 0.567330 -1.521177 255 0 0 
1.923885 0.565252 -1.511523 255 0 0 
2.037782 0.516468 -1.526847 255 0 0 
2.025939 0.509445 -1.501087 255 0 0 
1.981296 0.497405 -1.462714 255 0 0 
1.907216 0.471768 -1.389965 255 0 0 
1.902440 0.473793 -1.388127 255 0 0 
1.912434 0.471578 -1.385859 255 0 0 
1.914422 0.465793 -1.383165 255 0 0 
1.915968 0.459939 -1.380484 255 0 0 
1.915644 0.456128 -1.372486 255 0 0 
1.911712 0.450148 -1.360437 255 0 0 
1.917800 0.442548 -1.353857 255 0 0 
1.915522 0.443063 -1.359731 255 0 0 
1.915039 0.435661 -1.342861 255 0 0 
1.914522 0.435776 -1.350130 255 0 0 
1.912612 0.429521 -1.339586 255 0 0 
1.913880 0.429089 -1.333254 255 0 0 
1.913400 0.428988 -1.332868 255 0 0 
1.915097 0.423259 -1.330603 255 0 0 
1.915122 0.423140 -1.330566 255 0 0 
1.901225 0.394486 -1.289935 255 0 0 
1.887908 0.310157 -1.168670 255 0 0 
1.892297 0.280134 -1.136832 255 0 0 
1.930008 0.069047 -0.895337 255 0 0 
1.927312 0.560024 -1.525521 255 0 0 
1.918535 0.556508 -1.512729 255 0 0 
1.913783 0.554713 -1.503615 255 0 0 
1.913865 0.555374 -1.501814 255 0 0 
1.911054 0.547916 -1.499734 255 0 0 
1.910980 0.548668 -1.497913 255 0 0 
1.901805 0.539845 -1.478499 255 0 0 
2.007347 0.510336 -1.504826 255 0 0 
2.010146 0.502612 -1.497972 255 0 0 
1.971738 0.492678 -1.464556 255 0 0 
1.911446 0.466099 -1.388766 255 0 0 
1.913719 0.460348 -1.386459 255 0 0 
1.915401 0.454689 -1.384103 255 0 0 
1.916970 0.450328 -1.377601 255 0 0 
1.914697 0.449728 -1.369197 255 0 0 
1.913247 0.443491 -1.365723 255 0 0 
1.916291 0.436274 -1.357728 255 0 0 
1.914401 0.429807 -1.346924 255 0 0 
1.912075 0.424094 -1.343242 255 0 0 
1.912827 0.423620 -1.336660 255 0 0 
1.914038 0.417783 -1.334014 255 0 0 
1.914270 0.417139 -1.327388 255 0 0 
1.906350 0.413843 -1.319795 255 0 0 
1.903507 0.389981 -1.288990 255 0 0 
1.890390 0.270674 -1.133946 255 0 0 
1.896775 0.181494 -1.023757 255 0 0 
1.925885 0.069334 -0.901780 255 0 0 
1.947098 -0.001437 -0.823807 255 0 0 
1.945235 -0.029234 -0.790354 255 0 0 
1.966868 -0.082410 -0.734041 255 0 0 
1.912190 0.547738 -1.508308 255 0 0 
1.912314 0.549337 -1.508232 255 0 0 
1.914274 0.549763 -1.513007 255 0 0 
1.907055 0.540692 -1.495964 255 0 0 
1.904946 0.536616 -1.491019 255 0 0 
1.901746 0.532369 -1.477606 255 0 0 
1.972391 0.494932 -1.471472 255 0 0 
1.911071 0.461356 -1.399247 255 0 0 
1.911976 0.460794 -1.392936 255 0 0 
1.913276 0.454900 -1.390503 255 0 0 
1.915558 0.449330 -1.388421 255 0 0 
1.915012 0.448716 -1.380990 255 0 0 
1.914596 0.443548 -1.373374 255 0 0 
1.912287 0.437414 -1.369764 255 0 0 
1.913635 0.436879 -1.363332 255 0 0 
1.914851 0.430466 -1.361415 255 0 0 
1.913860 0.429931 -1.354131 255 0 0 
1.912228 0.423696 -1.350805 255 0 0 
1.912393 0.418016 -1.340334 255 0 0 
1.912525 0.417958 -1.340535 255 0 0 
1.909289 0.412202 -1.337125 255 0 0 
1.911001 0.411765 -1.330621 255 0 0 
1.907399 0.407815 -1.324254 255 0 0 
1.904452 0.408496 -1.322636 255 0 0 
1.915598 0.412091 -1.331604 255 0 0 
1.906522 0.389310 -1.301800 255 0 0 
1.896035 0.365617 -1.266100 255 0 0 
1.894369 0.345652 -1.238426 255 0 0 
1.897091 0.269378 -1.141783 255 0 0 
1.904516 0.209736 -1.077871 255 0 0 
1.907884 0.183008 -1.039192 255 0 0 
1.896309 0.176567 -1.027079 255 0 0 
1.921697 0.109497 -0.958652 255 0 0 
1.929161 0.074270 -0.916071 255 0 0 
1.953309 0.069348 -0.921357 255 0 0 
1.934216 0.036163 -0.876581 255 0 0 
1.933179 0.005624 -0.835609 255 0 0 
1.949192 -0.006898 -0.827395 255 0 0 
1.945699 -0.034565 -0.793802 255 0 0 
1.963810 -0.099188 -0.720052 255 0 0 
1.916220 0.549497 -1.517320 255 0 0 
1.910740 0.541754 -1.511068 255 0 0 
1.909009 0.540788 -1.504343 255 0 0 
1.909916 0.542539 -1.504449 255 0 0 
1.900689 0.523147 -1.480828 255 0 0 
1.908128 0.466125 -1.413682 255 0 0 
1.907519 0.455802 -1.401482 255 0 0 
1.911717 0.455408 -1.396864 255 0 0 
1.911215 0.449419 -1.393715 255 0 0 
1.912209 0.442918 -1.384271 255 0 0 
1.913239 0.438353 -1.376715 255 0 0 
1.911202 0.431585 -1.373136 255 0 0 
1.912342 0.430880 -1.367323 255 0 0 
1.913406 0.431358 -1.367179 255 0 0 
1.913596 0.425165 -1.364881 255 0 0 
1.913759 0.424479 -1.358121 255 0 0 
1.912847 0.424184 -1.357955 255 0 0 
1.906556 0.413690 -1.343800 255 0 0 
1.910498 0.418439 -1.346597 255 0 0 
1.904364 0.402519 -1.327008 255 0 0 
1.900619 0.145517 -1.001834 255 0 0 
1.941290 0.066588 -0.924389 255 0 0 
1.928493 0.037300 -0.882063 255 0 0 
1.955167 -0.058403 -0.776332 255 0 0 
1.913021 0.543402 -1.519500 255 0 0 
1.907017 0.533746 -1.509109 255 0 0 
1.906131 0.533976 -1.500536 255 0 0 
1.900334 0.530375 -1.497067 255 0 0 
1.902715 0.526948 -1.496546 255 0 0 
1.854222 0.487156 -1.412046 255 0 0 
1.904897 0.456681 -1.407922 255 0 0 
1.908918 0.449890 -1.399608 255 0 0 
1.910633 0.443608 -1.390531 255 0 0 
1.914804 0.437761 -1.391027 255 0 0 
1.910368 0.425914 -1.370429 255 0 0 
1.912185 0.419810 -1.368334 255 0 0 
1.910031 0.418843 -1.360792 255 0 0 
1.907069 0.414547 -1.352205 255 0 0 
1.907004 0.408330 -1.348002 255 0 0 
1.909006 0.400984 -1.337988 255 0 0 
1.903837 0.396247 -1.324432 255 0 0 
1.902878 0.384596 -1.311245 255 0 0 
1.898260 0.374556 -1.301799 255 0 0 
1.891596 0.372431 -1.294100 255 0 0 
1.895331 0.289041 -1.187626 255 0 0 
1.877444 0.260239 -1.137314 255 0 0 
1.887826 0.255832 -1.140054 255 0 0 
1.890466 0.202877 -1.079790 255 0 0 
1.890499 0.200753 -1.073759 255 0 0 
1.897852 0.157317 -1.020361 255 0 0 
1.906700 0.144917 -1.011300 255 0 0 
1.913700 0.105371 -0.962205 255 0 0 
1.922150 0.065189 -0.919608 255 0 0 
1.929870 0.024286 -0.874550 255 0 0 
1.933040 0.018189 -0.867101 255 0 0 
1.970107 -0.099418 -0.737409 255 0 0 
1.959453 -0.097396 -0.733161 255 0 0 
1.980451 -0.136416 -0.701133 255 0 0 
1.916776 0.544754 -1.537110 255 0 0 
1.912410 0.537182 -1.526129 255 0 0 
1.909568 0.535492 -1.517525 255 0 0 
1.902580 0.526673 -1.504898 255 0 0 
1.899727 0.522348 -1.495499 255 0 0 
1.911603 0.519755 -1.497605 255 0 0 
1.857339 0.481878 -1.417116 255 0 0 
1.864981 0.477062 -1.417288 255 0 0 
1.906124 0.457792 -1.421435 255 0 0 
1.901987 0.450475 -1.411040 255 0 0 
1.908255 0.450399 -1.406591 255 0 0 
1.909071 0.444377 -1.403865 255 0 0 
1.910334 0.444830 -1.404539 255 0 0 
1.909568 0.442997 -1.397217 255 0 0 
1.905699 0.430925 -1.380076 255 0 0 
1.908991 0.431521 -1.388550 255 0 0 
1.905761 0.425687 -1.376247 255 0 0 
1.910958 0.420243 -1.374927 255 0 0 
1.904009 0.414801 -1.357977 255 0 0 
1.905599 0.409075 -1.355440 255 0 0 
1.906069 0.403051 -1.351473 255 0 0 
1.908114 0.401718 -1.345086 255 0 0 
1.910014 0.391234 -1.337244 255 0 0 
1.902387 0.372861 -1.305024 255 0 0 
1.890134 0.352939 -1.272360 255 0 0 
1.887792 0.347766 -1.268908 255 0 0 
1.888222 0.342073 -1.258950 255 0 0 
1.885537 0.309864 -1.215943 255 0 0 
1.891193 0.284829 -1.190242 255 0 0 
1.878598 0.255699 -1.141680 255 0 0 
1.896115 0.219948 -1.106049 255 0 0 
1.935000 -0.008700 -0.846413 255 0 0 
1.946842 -0.045543 -0.803704 255 0 0 
1.912231 0.538536 -1.539223 255 0 0 
1.908142 0.529496 -1.522238 255 0 0 
1.908223 0.529485 -1.522350 255 0 0 
1.898475 0.524251 -1.503534 255 0 0 
1.904987 0.528132 -1.513499 255 0 0 
1.901863 0.517838 -1.500670 255 0 0 
1.852369 0.487024 -1.431773 255 0 0 
1.857848 0.476163 -1.421234 255 0 0 
1.909313 0.446393 -1.417800 255 0 0 
1.907555 0.445401 -1.410244 255 0 0 
1.908233 0.439455 -1.407475 255 0 0 
1.908807 0.437663 -1.400401 255 0 0 
1.911138 0.433172 -1.399361 255 0 0 
1.910077 0.432087 -1.397147 255 0 0 
1.909063 0.421471 -1.388010 255 0 0 
1.909239 0.420686 -1.381294 255 0 0 
1.910341 0.414716 -1.378571 255 0 0 
1.908286 0.414162 -1.371122 255 0 0 
1.906778 0.401800 -1.362299 255 0 0 
1.908036 0.396765 -1.356272 255 0 0 
1.908070 0.395780 -1.349215 255 0 0 
1.899984 0.367841 -1.308114 255 0 0 
1.899894 0.367886 -1.308112 255 0 0 
1.890433 0.279896 -1.193461 255 0 0 
1.892728 0.254535 -1.157678 255 0 0 
1.875077 0.251968 -1.147875 255 0 0 
1.904412 0.130439 -1.014810 255 0 0 
1.908592 0.129818 -1.011000 255 0 0 
1.919184 0.082577 -0.959250 255 0 0 
1.918207 0.026084 -0.891281 255 0 0 
1.936067 -0.014301 -0.846934 255 0 0 
1.969047 -0.129521 -0.724637 255 0 0 
1.910866 0.532959 -1.542801 255 0 0 
1.900799 0.520204 -1.511547 255 0 0 
1.903601 0.521504 -1.520173 255 0 0 
1.903705 0.521690 -1.520259 255 0 0 
1.903595 0.521493 -1.520262 255 0 0 
1.899305 0.518254 -1.507658 255 0 0 
1.853382 0.485075 -1.440316 255 0 0 
1.851109 0.479374 -1.428422 255 0 0 
1.910205 0.468692 -1.450325 255 0 0 
1.907355 0.450984 -1.433471 255 0 0 
1.904756 0.440500 -1.420062 255 0 0 
1.906906 0.440020 -1.413915 255 0 0 
1.907858 0.434138 -1.411290 255 0 0 
1.908941 0.433440 -1.404592 255 0 0 
1.908744 0.433469 -1.405470 255 0 0 
1.910497 0.427745 -1.402627 255 0 0 
1.909577 0.422447 -1.394025 255 0 0 
1.908654 0.415488 -1.384902 255 0 0 
1.909682 0.409459 -1.382148 255 0 0 
1.908984 0.408652 -1.375171 255 0 0 
1.908519 0.404569 -1.371945 255 0 0 
1.908767 0.389370 -1.353682 255 0 0 
1.898797 0.363152 -1.314498 255 0 0 
1.890232 0.249781 -1.160830 255 0 0 
1.886021 0.242577 -1.154961 255 0 0 
1.887758 0.244788 -1.156752 255 0 0 
1.892057 0.217598 -1.126523 255 0 0 
1.894513 0.213107 -1.114795 255 0 0 
1.888108 0.159227 -1.044310 255 0 0 
1.901816 0.126095 -1.017238 255 0 0 
1.910330 0.110135 -0.999464 255 0 0 
1.905786 0.099647 -0.984767 255 0 0 
1.934892 -0.050484 -0.811634 255 0 0 
1.967318 -0.139493 -0.712909 255 0 0 
1.907014 0.522906 -1.529040 255 0 0 
1.899219 0.513516 -1.518030 255 0 0 
1.896794 0.511627 -1.514004 255 0 0 
1.896681 0.510213 -1.505671 255 0 0 
1.913842 0.456782 -1.455312 255 0 0 
1.902967 0.440995 -1.425825 255 0 0 
1.906443 0.434716 -1.417701 255 0 0 
1.906054 0.429162 -1.415015 255 0 0 
1.908607 0.428143 -1.408925 255 0 0 
1.909279 0.422374 -1.406562 255 0 0 
1.909833 0.416671 -1.403914 255 0 0 
1.908816 0.416466 -1.403086 255 0 0 
1.909440 0.414910 -1.397382 255 0 0 
1.907737 0.409881 -1.388478 255 0 0 
1.907282 0.408898 -1.388302 255 0 0 
1.908364 0.402882 -1.379118 255 0 0 
1.905941 0.396688 -1.372594 255 0 0 
1.906123 0.396490 -1.365890 255 0 0 
1.907499 0.390682 -1.363396 255 0 0 
1.906823 0.387850 -1.360585 255 0 0 
1.880859 0.258744 -1.175391 255 0 0 
1.903370 0.101820 -0.990991 255 0 0 
1.912890 0.082278 -0.978428 255 0 0 
1.905877 0.025096 -0.892311 255 0 0 
1.965541 -0.147331 -0.713459 255 0 0 
1.915038 0.526160 -1.548996 255 0 0 
1.905430 0.516080 -1.535278 255 0 0 
1.902705 0.514818 -1.526793 255 0 0 
1.902348 0.514835 -1.526732 255 0 0 
1.898662 0.505364 -1.518933 255 0 0 
1.911837 0.452838 -1.457348 255 0 0 
1.918555 0.451207 -1.455061 255 0 0 
1.902620 0.435178 -1.423036 255 0 0 
1.903266 0.429410 -1.420478 255 0 0 
1.903209 0.423945 -1.418075 255 0 0 
1.906654 0.423103 -1.412329 255 0 0 
1.907148 0.417312 -1.409534 255 0 0 
1.904906 0.410242 -1.394313 255 0 0 
1.905774 0.409993 -1.400368 255 0 0 
1.905212 0.409509 -1.394396 255 0 0 
1.905807 0.403062 -1.385239 255 0 0 
1.904647 0.403815 -1.391349 255 0 0 
1.905693 0.397351 -1.382307 255 0 0 
1.904007 0.391483 -1.368947 255 0 0 
1.905398 0.386818 -1.373183 255 0 0 
1.906467 0.382912 -1.363946 255 0 0 
1.901263 0.355629 -1.323433 255 0 0 
1.887170 0.336898 -1.290458 255 0 0 
1.887235 0.266233 -1.206110 255 0 0 
1.887125 0.238296 -1.163339 255 0 0 
1.886068 0.237390 -1.161274 255 0 0 
1.883703 0.214676 -1.133283 255 0 0 
1.891665 0.203370 -1.121242 255 0 0 
1.903511 0.075869 -0.973616 255 0 0 
1.949853 -0.089529 -0.784706 255 0 0 
1.958660 -0.119671 -0.752484 255 0 0 
1.910456 0.518243 -1.555001 255 0 0 
1.909560 0.517780 -1.544307 255 0 0 
1.913252 0.519201 -1.553095 255 0 0 
1.901742 0.508114 -1.533362 255 0 0 
1.897833 0.506798 -1.524517 255 0 0 
1.916690 0.445453 -1.460183 255 0 0 
1.901609 0.441345 -1.445160 255 0 0 
1.905120 0.430169 -1.429075 255 0 0 
1.903227 0.424982 -1.425944 255 0 0 
1.905719 0.417566 -1.416106 255 0 0 
1.907495 0.411548 -1.407019 255 0 0 
1.903468 0.404269 -1.397765 255 0 0 
1.904310 0.398318 -1.395230 255 0 0 
1.904856 0.378039 -1.367175 255 0 0 
1.902124 0.371530 -1.357400 255 0 0 
1.898958 0.359862 -1.339409 255 0 0 
1.889004 0.337652 -1.307549 255 0 0 
1.881557 0.332499 -1.292190 255 0 0 
1.884273 0.330569 -1.294086 255 0 0 
1.886182 0.308358 -1.268704 255 0 0 
1.888088 0.231873 -1.169418 255 0 0 
1.880316 0.231593 -1.164425 255 0 0 
1.876847 0.219034 -1.146622 255 0 0 
1.893865 0.133951 -1.049314 255 0 0 
1.900580 0.116640 -1.026061 255 0 0 
1.907005 0.078869 -0.985722 255 0 0 
1.899942 0.064107 -0.965773 255 0 0 
1.923052 0.009630 -0.904786 255 0 0 
1.908620 0.511128 -1.550945 255 0 0 
1.904174 0.509695 -1.541911 255 0 0 
1.896574 0.500094 -1.531013 255 0 0 
1.897220 0.498492 -1.525541 255 0 0 
1.894675 0.498850 -1.522605 255 0 0 
1.897664 0.491961 -1.522527 255 0 0 
1.916086 0.445397 -1.468848 255 0 0 
1.904525 0.440660 -1.454033 255 0 0 
1.903698 0.442513 -1.454025 255 0 0 
1.901776 0.435505 -1.446689 255 0 0 
1.900768 0.425866 -1.439064 255 0 0 
1.902506 0.419184 -1.429736 255 0 0 
1.901934 0.418420 -1.422287 255 0 0 
1.901758 0.418360 -1.422414 255 0 0 
1.904283 0.412383 -1.419929 255 0 0 
1.907065 0.405217 -1.413718 255 0 0 
1.903350 0.398710 -1.401933 255 0 0 
1.904097 0.392861 -1.398994 255 0 0 
1.905298 0.388990 -1.394776 255 0 0 
1.905512 0.392392 -1.392457 255 0 0 
1.903150 0.387257 -1.385660 255 0 0 
1.901006 0.381105 -1.381853 255 0 0 
1.903275 0.380824 -1.375580 255 0 0 
1.902040 0.375248 -1.372009 255 0 0 
1.886902 0.331566 -1.302579 255 0 0 
1.879593 0.321250 -1.286232 255 0 0 
1.881563 0.315598 -1.283927 255 0 0 
1.880654 0.309731 -1.273493 255 0 0 
1.882786 0.183452 -1.115348 255 0 0 
1.946393 -0.096955 -0.796821 255 0 0 
1.897083 0.512458 -1.558721 255 0 0 
1.902869 0.502972 -1.548362 255 0 0 
1.900467 0.501688 -1.539860 255 0 0 
1.894456 0.492173 -1.529361 255 0 0 
1.913387 0.436386 -1.468119 255 0 0 
1.901460 0.419822 -1.436319 255 0 0 
1.901914 0.413840 -1.433516 255 0 0 
1.901477 0.412672 -1.426164 255 0 0 
1.903744 0.406657 -1.423593 255 0 0 
1.903786 0.399507 -1.416503 255 0 0 
1.904549 0.400853 -1.421009 255 0 0 
1.903877 0.399099 -1.409557 255 0 0 
1.901305 0.393280 -1.404811 255 0 0 
1.904016 0.389512 -1.401276 255 0 0 
1.904296 0.383296 -1.398493 255 0 0 
1.904907 0.381043 -1.390406 255 0 0 
1.901811 0.375592 -1.378924 255 0 0 
1.902372 0.369802 -1.375878 255 0 0 
1.888568 0.341212 -1.330863 255 0 0 
1.882609 0.310140 -1.281678 255 0 0 
1.884896 0.255676 -1.214234 255 0 0 
1.882267 0.256079 -1.213492 255 0 0 
1.880480 0.227224 -1.176547 255 0 0 
1.888926 0.177256 -1.115749 255 0 0 
1.948686 -0.103559 -0.802468 255 0 0 
1.954163 -0.135285 -0.763145 255 0 0 
1.907659 0.504472 -1.557727 255 0 0 
1.899200 0.494925 -1.546275 255 0 0 
1.895507 0.493431 -1.537556 255 0 0 
1.888462 0.484064 -1.526895 255 0 0 
1.903822 0.429816 -1.462286 255 0 0 
1.899794 0.414307 -1.439797 255 0 0 
1.900879 0.408311 -1.437171 255 0 0 
1.901743 0.407692 -1.430418 255 0 0 
1.902813 0.401461 -1.427131 255 0 0 
1.902465 0.390007 -1.407766 255 0 0 
1.902216 0.390396 -1.414954 255 0 0 
1.903258 0.383931 -1.404969 255 0 0 
1.903800 0.378110 -1.402283 255 0 0 
1.903080 0.376307 -1.392217 255 0 0 
1.899731 0.373387 -1.385696 255 0 0 
1.900251 0.370238 -1.382178 255 0 0 
1.898235 0.359036 -1.368265 255 0 0 
1.898988 0.357559 -1.364542 255 0 0 
1.892104 0.334420 -1.336248 255 0 0 
1.874588 0.298765 -1.279357 255 0 0 
1.878046 0.251345 -1.216071 255 0 0 
1.873100 0.250656 -1.209131 255 0 0 
1.872584 0.227339 -1.179099 255 0 0 
1.908214 0.059151 -0.993248 255 0 0 
1.932203 -0.044060 -0.871752 255 0 0 
1.902516 0.496314 -1.555084 255 0 0 
1.894497 0.486808 -1.544235 255 0 0 
1.891329 0.485437 -1.535446 255 0 0 
1.903965 0.423523 -1.468776 255 0 0 
1.905387 0.420430 -1.466887 255 0 0 
1.891564 0.414188 -1.443617 255 0 0 
1.895772 0.408550 -1.441981 255 0 0 
1.897860 0.408667 -1.443111 255 0 0 
1.898289 0.402954 -1.440079 255 0 0 
1.901501 0.402482 -1.434555 255 0 0 
1.904800 0.396712 -1.433330 255 0 0 
1.902485 0.390903 -1.422144 255 0 0 
1.901578 0.384714 -1.418943 255 0 0 
1.901576 0.384319 -1.411642 255 0 0 
1.902409 0.378458 -1.408981 255 0 0 
1.900377 0.370571 -1.391760 255 0 0 
1.901251 0.370733 -1.399150 255 0 0 
1.900054 0.364453 -1.388714 255 0 0 
1.898203 0.353502 -1.372127 255 0 0 
1.897943 0.353343 -1.371899 255 0 0 
1.893486 0.329360 -1.340380 255 0 0 
1.870931 0.240933 -1.210095 255 0 0 
1.873987 0.221192 -1.183911 255 0 0 
1.867883 0.217415 -1.177592 255 0 0 
1.874406 0.187164 -1.143489 255 0 0 
1.862652 0.157138 -1.096927 255 0 0 
1.898033 0.067647 -1.002994 255 0 0 
1.909655 0.015064 -0.939759 255 0 0 
1.910911 0.014558 -0.939885 255 0 0 
1.950360 -0.144225 -0.770001 255 0 0 
1.898018 0.488326 -1.552992 255 0 0 
1.888177 0.478050 -1.531429 255 0 0 
1.899474 0.431714 -1.486861 255 0 0 
1.904754 0.430715 -1.483515 255 0 0 
1.889214 0.408367 -1.446939 255 0 0 
1.888347 0.408663 -1.445793 255 0 0 
1.895682 0.403494 -1.445827 255 0 0 
1.896798 0.397849 -1.443403 255 0 0 
1.899233 0.397202 -1.437668 255 0 0 
1.900798 0.391494 -1.435719 255 0 0 
1.905564 0.390910 -1.431082 255 0 0 
1.902656 0.384994 -1.425852 255 0 0 
1.900380 0.379008 -1.415151 255 0 0 
1.901648 0.373104 -1.412522 255 0 0 
1.900431 0.373256 -1.412465 255 0 0 
1.899036 0.372564 -1.404811 255 0 0 
1.897402 0.365323 -1.394805 255 0 0 
1.900929 0.366339 -1.402104 255 0 0 
1.901008 0.359916 -1.390130 255 0 0 
1.883271 0.309167 -1.311576 255 0 0 
1.879160 0.305976 -1.311191 255 0 0 
1.876855 0.290465 -1.281342 255 0 0 
1.881400 0.241335 -1.221847 255 0 0 
1.870419 0.237755 -1.214123 255 0 0 
1.875621 0.214405 -1.189948 255 0 0 
1.877234 0.193196 -1.160242 255 0 0 
1.881184 0.185657 -1.151805 255 0 0 
1.854029 0.163601 -1.101556 255 0 0 
1.913600 0.010381 -0.947428 255 0 0 
1.910246 0.491916 -1.577143 255 0 0 
1.896763 0.481869 -1.559605 255 0 0 
1.894374 0.480385 -1.551106 255 0 0 
1.900627 0.423414 -1.484949 255 0 0 
1.892092 0.398242 -1.448255 255 0 0 
1.899929 0.392513 -1.441811 255 0 0 
1.899929 0.386003 -1.439289 255 0 0 
1.901019 0.385497 -1.432810 255 0 0 
1.897821 0.378954 -1.429272 255 0 0 
1.899313 0.379187 -1.422519 255 0 0 
1.897346 0.374072 -1.418832 255 0 0 
1.899445 0.366742 -1.408902 255 0 0 
1.898071 0.360994 -1.405517 255 0 0 
1.899826 0.360625 -1.399063 255 0 0 
1.898252 0.353362 -1.393162 255 0 0 
1.897642 0.328213 -1.356450 255 0 0 
1.891771 0.323977 -1.350272 255 0 0 
1.878995 0.236234 -1.224717 255 0 0 
1.873537 0.199509 -1.173943 255 0 0 
1.871709 0.194149 -1.170306 255 0 0 
1.873379 0.193655 -1.164730 255 0 0 
1.901104 0.012983 -0.954092 255 0 0 
1.925251 -0.055068 -0.885314 255 0 0 
1.901733 0.486073 -1.579155 255 0 0 
1.900918 0.488564 -1.580843 255 0 0 
1.887570 0.471700 -1.547325 255 0 0 
1.879215 0.446858 -1.505023 255 0 0 
1.894234 0.425535 -1.498695 255 0 0 
1.891300 0.418536 -1.486609 255 0 0 
1.893050 0.392418 -1.446002 255 0 0 
1.894828 0.391804 -1.453220 255 0 0 
1.895032 0.392721 -1.446621 255 0 0 
1.897863 0.380081 -1.440414 255 0 0 
1.898073 0.379119 -1.436525 255 0 0 
1.893868 0.374467 -1.424978 255 0 0 
1.894220 0.369248 -1.421404 255 0 0 
1.896495 0.362923 -1.418134 255 0 0 
1.899009 0.361800 -1.411762 255 0 0 
1.898061 0.353284 -1.401452 255 0 0 
1.891562 0.335615 -1.371990 255 0 0 
1.891200 0.335758 -1.371848 255 0 0 
1.884839 0.319167 -1.345208 255 0 0 
1.884105 0.300097 -1.322654 255 0 0 
1.878858 0.297241 -1.318524 255 0 0 
1.873404 0.279899 -1.288225 255 0 0 
1.877022 0.253596 -1.258088 255 0 0 
1.874530 0.232418 -1.233606 255 0 0 
1.872232 0.233366 -1.226489 255 0 0 
1.903840 0.041987 -1.006852 255 0 0 
1.894963 0.022149 -0.977206 255 0 0 
1.958866 -0.185790 -0.753461 255 0 0 
1.904929 0.479959 -1.584578 255 0 0 
1.897956 0.478110 -1.576076 255 0 0 
1.887427 0.464306 -1.552447 255 0 0 
1.885810 0.463718 -1.543864 255 0 0 
1.881676 0.432582 -1.502818 255 0 0 
1.888310 0.420660 -1.489350 255 0 0 
1.891851 0.392497 -1.458740 255 0 0 
1.896222 0.386857 -1.457386 255 0 0 
1.895019 0.386578 -1.449286 255 0 0 
1.896969 0.380716 -1.446900 255 0 0 
1.894139 0.369285 -1.435220 255 0 0 
1.897323 0.368344 -1.430067 255 0 0 
1.895718 0.363396 -1.425753 255 0 0 
1.899259 0.356441 -1.423321 255 0 0 
1.898653 0.355946 -1.415767 255 0 0 
1.888675 0.312883 -1.357463 255 0 0 
1.870294 0.291262 -1.311431 255 0 0 
1.876756 0.290041 -1.320550 255 0 0 
1.867792 0.269152 -1.287485 255 0 0 
1.875567 0.227160 -1.236877 255 0 0 
1.873741 0.172828 -1.166229 255 0 0 
1.901261 0.022481 -0.992182 255 0 0 
1.956738 -0.185378 -0.759510 255 0 0 
1.900340 0.482214 -1.588204 255 0 0 
1.894632 0.478632 -1.581597 255 0 0 
1.893595 0.472279 -1.578309 255 0 0 
1.889806 0.464963 -1.561309 255 0 0 
1.887418 0.457685 -1.550882 255 0 0 
1.864226 0.436927 -1.503727 255 0 0 
1.871621 0.431285 -1.506158 255 0 0 
1.885896 0.426809 -1.508535 255 0 0 
1.887481 0.402774 -1.476866 255 0 0 
1.888071 0.393146 -1.463763 255 0 0 
1.889293 0.387395 -1.461746 255 0 0 
1.893080 0.380937 -1.460232 255 0 0 
1.895820 0.380536 -1.454215 255 0 0 
1.895810 0.374442 -1.451100 255 0 0 
1.897991 0.371416 -1.449273 255 0 0 
1.896741 0.370756 -1.441633 255 0 0 
1.894406 0.363650 -1.432275 255 0 0 
1.896266 0.357698 -1.429949 255 0 0 
1.897578 0.352265 -1.427295 255 0 0 
1.897012 0.349885 -1.419634 255 0 0 
1.896200 0.349222 -1.412276 255 0 0 
1.875514 0.290897 -1.327555 255 0 0 
1.876308 0.284774 -1.324186 255 0 0 
1.874574 0.191403 -1.199771 255 0 0 
1.871670 0.192112 -1.192528 255 0 0 
1.898040 0.023966 -0.998658 255 0 0 
1.902326 -0.008853 -0.959969 255 0 0 
1.921918 -0.071058 -0.896066 255 0 0 
1.903810 0.473868 -1.592171 255 0 0 
1.891943 0.465187 -1.570313 255 0 0 
1.888090 0.456832 -1.565884 255 0 0 
1.887016 0.456854 -1.557442 255 0 0 
1.869495 0.430423 -1.512206 255 0 0 
1.876740 0.424637 -1.514579 255 0 0 
1.887452 0.419414 -1.516872 255 0 0 
1.891768 0.381569 -1.466728 255 0 0 
1.893185 0.375697 -1.464304 255 0 0 
1.893858 0.374932 -1.457412 255 0 0 
1.897372 0.365639 -1.453300 255 0 0 
1.895690 0.364945 -1.445490 255 0 0 
1.895832 0.358644 -1.442480 255 0 0 
1.894314 0.358156 -1.436145 255 0 0 
1.895681 0.352249 -1.433757 255 0 0 
1.897267 0.346637 -1.424276 255 0 0 
1.889358 0.344574 -1.412261 255 0 0 
1.894408 0.339895 -1.417321 255 0 0 
1.882525 0.289357 -1.336840 255 0 0 
1.882474 0.289112 -1.337005 255 0 0 
1.866909 0.223101 -1.238677 255 0 0 
1.864502 0.213226 -1.231423 255 0 0 
1.863707 0.193415 -1.203778 255 0 0 
1.862012 0.189135 -1.197310 255 0 0 
1.865515 0.165973 -1.171535 255 0 0 
1.864836 0.165916 -1.164797 255 0 0 
1.794583 0.167875 -1.117674 255 0 0 
1.894789 0.019484 -1.001462 255 0 0 
1.931749 -0.140386 -0.823928 255 0 0 
1.938838 -0.164784 -0.789242 255 0 0 
1.900817 0.468290 -1.599192 255 0 0 
1.895263 0.466039 -1.584491 255 0 0 
1.889746 0.457744 -1.574479 255 0 0 
1.881554 0.449532 -1.560378 255 0 0 
1.879939 0.449483 -1.551727 255 0 0 
1.883388 0.380932 -1.471182 255 0 0 
1.891185 0.376204 -1.470671 255 0 0 
1.887891 0.376011 -1.468913 255 0 0 
1.889069 0.375046 -1.462744 255 0 0 
1.893728 0.369414 -1.461263 255 0 0 
1.892285 0.359076 -1.449001 255 0 0 
1.893286 0.353582 -1.445565 255 0 0 
1.892224 0.353057 -1.439275 255 0 0 
1.894085 0.347100 -1.436987 255 0 0 
1.895645 0.347107 -1.430518 255 0 0 
1.895672 0.341406 -1.427631 255 0 0 
1.881520 0.283854 -1.340529 255 0 0 
1.873540 0.279951 -1.333665 255 0 0 
1.861770 0.162182 -1.172455 255 0 0 
1.803753 0.166085 -1.129434 255 0 0 
1.799621 0.161133 -1.124881 255 0 0 
1.953242 -0.218212 -0.742228 255 0 0 
1.897660 0.458870 -1.593522 255 0 0 
1.886680 0.450081 -1.570578 255 0 0 
1.880941 0.443068 -1.557458 255 0 0 
1.881678 0.417929 -1.522984 255 0 0 
1.895536 0.411244 -1.527721 255 0 0 
1.893847 0.407971 -1.529445 255 0 0 
1.895480 0.404985 -1.525427 255 0 0 
1.884255 0.377233 -1.474951 255 0 0 
1.883703 0.371307 -1.471834 255 0 0 
1.891608 0.369772 -1.467669 255 0 0 
1.894275 0.363937 -1.465343 255 0 0 
1.895296 0.359455 -1.457103 255 0 0 
1.893139 0.353734 -1.453360 255 0 0 
1.887595 0.349192 -1.447686 255 0 0 
1.888753 0.348042 -1.442184 255 0 0 
1.892961 0.341543 -1.440663 255 0 0 
1.892517 0.341393 -1.433362 255 0 0 
1.893956 0.335444 -1.425282 255 0 0 
1.889839 0.314197 -1.396159 255 0 0 
1.868737 0.253488 -1.305204 255 0 0 
1.872070 0.231882 -1.281223 255 0 0 
1.867270 0.178126 -1.201798 255 0 0 
1.872642 0.161462 -1.185570 255 0 0 
1.907234 -0.078667 -0.902424 255 0 0 
1.935138 -0.148924 -0.833667 255 0 0 
1.888901 0.449984 -1.587973 255 0 0 
1.883137 0.442868 -1.573198 255 0 0 
1.884010 0.436944 -1.570609 255 0 0 
1.885208 0.437003 -1.564514 255 0 0 
1.878924 0.411864 -1.532117 255 0 0 
1.878924 0.411864 -1.532117 255 0 0 
1.873761 0.411813 -1.522169 255 0 0 
1.893191 0.407245 -1.530110 255 0 0 
1.892669 0.401553 -1.526394 255 0 0 
1.908814 0.376092 -1.503722 255 0 0 
1.878814 0.370965 -1.477919 255 0 0 
1.885858 0.363532 -1.469313 255 0 0 
1.891654 0.356806 -1.468452 255 0 0 
1.896266 0.353913 -1.461967 255 0 0 
1.896345 0.347895 -1.459202 255 0 0 
1.893673 0.341744 -1.448196 255 0 0 
1.891685 0.335881 -1.444363 255 0 0 
1.899902 0.333753 -1.440326 255 0 0 
1.895242 0.331552 -1.435329 255 0 0 
1.893271 0.325939 -1.431681 255 0 0 
1.885381 0.294688 -1.376252 255 0 0 
1.872923 0.287681 -1.358730 255 0 0 
1.880878 0.272200 -1.347600 255 0 0 
1.868755 0.270441 -1.337552 255 0 0 
1.865980 0.152359 -1.178954 255 0 0 
1.879302 0.065946 -1.079267 255 0 0 
1.889866 0.005348 -1.005378 255 0 0 
1.898390 -0.047959 -0.947956 255 0 0 
1.898390 -0.047959 -0.947956 255 0 0 
1.898390 -0.047959 -0.947956 255 0 0 
1.910146 -0.086255 -0.908224 255 0 0 
1.888440 0.451792 -1.594948 255 0 0 
1.883337 0.446085 -1.588702 255 0 0 
1.884795 0.443513 -1.582131 255 0 0 
1.878493 0.435763 -1.575052 255 0 0 
1.886013 0.400315 -1.533612 255 0 0 
1.892578 0.402096 -1.535285 255 0 0 
1.930811 0.386396 -1.549006 255 0 0 
1.881888 0.363587 -1.482755 255 0 0 
1.885397 0.363097 -1.476253 255 0 0 
1.890314 0.353721 -1.474286 255 0 0 
1.887694 0.357568 -1.474026 255 0 0 
1.889564 0.348423 -1.463447 255 0 0 
1.890227 0.341267 -1.461071 255 0 0 
1.892410 0.342449 -1.454756 255 0 0 
1.890547 0.336240 -1.450800 255 0 0 
1.893260 0.328369 -1.444148 255 0 0 
1.865583 0.265659 -1.333787 255 0 0 
1.863461 0.260899 -1.332661 255 0 0 
1.864144 0.256446 -1.322466 255 0 0 
1.864051 0.245002 -1.309271 255 0 0 
1.871159 0.169201 -1.221997 255 0 0 
1.863404 0.169370 -1.211480 255 0 0 
1.868440 0.138108 -1.178976 255 0 0 
1.796677 0.131761 -1.114168 255 0 0 
1.896308 -0.007977 -1.009946 255 0 0 
1.895236 -0.025036 -0.986548 255 0 0 
1.908659 -0.070792 -0.934786 255 0 0 
1.946048 -0.210812 -0.780664 255 0 0 
1.883787 0.447149 -1.604713 255 0 0 
1.887182 0.446250 -1.599336 255 0 0 
1.885321 0.439509 -1.594941 255 0 0 
1.881952 0.436356 -1.585566 255 0 0 
1.932172 0.390424 -1.560384 255 0 0 
1.888612 0.348097 -1.478527 255 0 0 
1.888558 0.348035 -1.478107 255 0 0 
1.891595 0.347881 -1.471844 255 0 0 
1.890976 0.341600 -1.468607 255 0 0 
1.890041 0.334629 -1.458150 255 0 0 
1.891744 0.328835 -1.450662 255 0 0 
1.891934 0.322992 -1.447632 255 0 0 
1.890179 0.323490 -1.439853 255 0 0 
1.889227 0.316952 -1.436410 255 0 0 
1.864465 0.222464 -1.287368 255 0 0 
1.864337 0.201203 -1.264482 255 0 0 
1.864220 0.142557 -1.185583 255 0 0 
1.867459 0.133424 -1.181697 255 0 0 
1.869431 0.127163 -1.175845 255 0 0 
1.872059 0.131298 -1.173359 255 0 0 
1.796237 0.126052 -1.116418 255 0 0 
1.798495 0.121358 -1.110814 255 0 0 
1.905850 -0.098180 -0.905138 255 0 0 
1.944662 -0.216299 -0.777899 255 0 0 
1.958956 -0.252217 -0.749971 255 0 0 
1.886164 0.440045 -1.603168 255 0 0 
1.877924 0.428688 -1.581223 255 0 0 
1.891092 0.405481 -1.561514 255 0 0 
1.887301 0.364992 -1.510065 255 0 0 
1.881795 0.356053 -1.487955 255 0 0 
1.885270 0.348796 -1.484322 255 0 0 
1.890040 0.342114 -1.476033 255 0 0 
1.887385 0.342726 -1.482037 255 0 0 
1.887820 0.342599 -1.481756 255 0 0 
1.890339 0.342120 -1.475621 255 0 0 
1.889899 0.335163 -1.465317 255 0 0 
1.891397 0.335324 -1.473169 255 0 0 
1.883121 0.329747 -1.462477 255 0 0 
1.889061 0.329382 -1.456594 255 0 0 
1.890313 0.323480 -1.454107 255 0 0 
1.889275 0.317394 -1.450961 255 0 0 
1.889685 0.316817 -1.443945 255 0 0 
1.884706 0.299905 -1.416749 255 0 0 
1.860729 0.240198 -1.319391 255 0 0 
1.861938 0.165677 -1.229835 255 0 0 
1.862170 0.164862 -1.223854 255 0 0 
1.867295 0.137190 -1.195499 255 0 0 
1.868111 0.137007 -1.195750 255 0 0 
1.868047 0.136825 -1.189428 255 0 0 
1.871552 0.128478 -1.183635 255 0 0 
1.864056 0.125275 -1.179142 255 0 0 
1.865431 0.128487 -1.176749 255 0 0 
1.864841 0.118494 -1.168942 255 0 0 
1.801127 0.119456 -1.121763 255 0 0 
1.906884 -0.064632 -0.959946 255 0 0 
1.907670 -0.066821 -0.956387 255 0 0 
1.904607 -0.071748 -0.947501 255 0 0 
1.930709 -0.167064 -0.849370 255 0 0 
1.927350 -0.166141 -0.840713 255 0 0 
1.938482 -0.190880 -0.819353 255 0 0 
1.883040 0.440427 -1.609010 255 0 0 
1.882989 0.434882 -1.604347 255 0 0 
1.880356 0.430321 -1.597266 255 0 0 
1.879879 0.428608 -1.590264 255 0 0 
1.873340 0.420921 -1.583855 255 0 0 
1.878870 0.421075 -1.580951 255 0 0 
1.884757 0.401174 -1.562659 255 0 0 
1.864425 0.405531 -1.548081 255 0 0 
1.886659 0.367577 -1.521093 255 0 0 
1.878479 0.357660 -1.501338 255 0 0 
1.874067 0.354389 -1.491169 255 0 0 
1.879143 0.349513 -1.489184 255 0 0 
1.884588 0.343453 -1.487666 255 0 0 
1.884462 0.343351 -1.487978 255 0 0 
1.891449 0.335804 -1.480805 255 0 0 
1.887757 0.330129 -1.475845 255 0 0 
1.878465 0.325290 -1.463658 255 0 0 
1.884626 0.323356 -1.461457 255 0 0 
1.887232 0.320401 -1.460990 255 0 0 
1.885473 0.311723 -1.446683 255 0 0 
1.862515 0.131872 -1.193118 255 0 0 
1.864212 0.120050 -1.176350 255 0 0 
1.866800 0.111263 -1.165913 255 0 0 
1.802165 0.112980 -1.118189 255 0 0 
1.891902 -0.047215 -0.981595 255 0 0 
1.907591 -0.104563 -0.913998 255 0 0 
1.918902 -0.131134 -0.893436 255 0 0 
1.876690 0.439460 -1.613410 255 0 0 
1.884674 0.434094 -1.615437 255 0 0 
1.884635 0.426835 -1.612538 255 0 0 
1.878757 0.421537 -1.596643 255 0 0 
1.877525 0.412548 -1.588343 255 0 0 
1.875044 0.411406 -1.578473 255 0 0 
1.878288 0.400951 -1.566808 255 0 0 
1.876252 0.399034 -1.561611 255 0 0 
1.874147 0.398991 -1.561188 255 0 0 
1.874147 0.398991 -1.561188 255 0 0 
1.882388 0.343211 -1.494491 255 0 0 
1.882223 0.338479 -1.490421 255 0 0 
1.889815 0.335931 -1.488138 255 0 0 
1.880924 0.318820 -1.464192 255 0 0 
1.880909 0.312834 -1.460210 255 0 0 
1.886384 0.316847 -1.460703 255 0 0 
1.882081 0.311926 -1.453394 255 0 0 
1.879376 0.306681 -1.448935 255 0 0 
1.885950 0.301635 -1.447421 255 0 0 
1.886692 0.301130 -1.440366 255 0 0 
1.882172 0.295670 -1.434277 255 0 0 
1.880586 0.289762 -1.430179 255 0 0 
1.882758 0.287665 -1.420487 255 0 0 
1.870636 0.288110 -1.416480 255 0 0 
1.876423 0.283250 -1.415326 255 0 0 
1.877926 0.274227 -1.403560 255 0 0 
1.880939 0.269472 -1.397497 255 0 0 
1.864848 0.180325 -1.272505 255 0 0 
1.859977 0.147824 -1.226139 255 0 0 
1.864594 0.126682 -1.196833 255 0 0 
1.869346 0.068465 -1.127604 255 0 0 
1.905382 -0.116196 -0.914026 255 0 0 
1.952749 -0.262526 -0.756035 255 0 0 
1.876320 0.434878 -1.617854 255 0 0 
1.877337 0.416400 -1.601334 255 0 0 
1.872811 0.414391 -1.591022 255 0 0 
1.878484 0.407463 -1.589455 255 0 0 
1.877016 0.402832 -1.584885 255 0 0 
1.880151 0.400134 -1.580026 255 0 0 
1.872543 0.400938 -1.571491 255 0 0 
1.871180 0.401345 -1.571161 255 0 0 
1.872543 0.400938 -1.571491 255 0 0 
1.879897 0.370985 -1.544728 255 0 0 
1.884671 0.363956 -1.537523 255 0 0 
1.880365 0.333178 -1.496647 255 0 0 
1.875706 0.327676 -1.482370 255 0 0 
1.884127 0.325060 -1.484914 255 0 0 
1.883466 0.324474 -1.480089 255 0 0 
1.871975 0.321546 -1.475852 255 0 0 
1.875856 0.314581 -1.465277 255 0 0 
1.878699 0.307173 -1.456215 255 0 0 
1.874071 0.299361 -1.445491 255 0 0 
1.885027 0.295920 -1.443843 255 0 0 
1.883112 0.293217 -1.447889 255 0 0 
1.880394 0.290549 -1.437719 255 0 0 
1.798586 0.289917 -1.368784 255 0 0 
1.802093 0.284424 -1.368221 255 0 0 
1.877536 0.274012 -1.410826 255 0 0 
1.868015 0.264172 -1.391256 255 0 0 
1.870948 0.246965 -1.374613 255 0 0 
1.867240 0.225937 -1.336385 255 0 0 
1.853586 0.202828 -1.302567 255 0 0 
1.866508 0.178963 -1.277261 255 0 0 
1.859114 0.127944 -1.200760 255 0 0 
1.866392 0.115560 -1.197370 255 0 0 
1.923224 -0.181142 -0.855060 255 0 0 
1.886264 0.420293 -1.622120 255 0 0 
1.880353 0.418338 -1.610486 255 0 0 
1.873443 0.408173 -1.599512 255 0 0 
1.871615 0.406173 -1.591431 255 0 0 
1.879529 0.399983 -1.587493 255 0 0 
1.876890 0.395048 -1.582920 255 0 0 
1.880175 0.394966 -1.584899 255 0 0 
1.886479 0.381640 -1.577833 255 0 0 
1.881659 0.364972 -1.543316 255 0 0 
1.869613 0.341675 -1.511545 255 0 0 
1.877362 0.338181 -1.504207 255 0 0 
1.871972 0.326262 -1.489571 255 0 0 
1.883757 0.302234 -1.461656 255 0 0 
1.865978 0.295127 -1.446672 255 0 0 
1.872177 0.289150 -1.433628 255 0 0 
1.871976 0.284700 -1.430612 255 0 0 
1.786944 0.285414 -1.367976 255 0 0 
1.786944 0.285414 -1.367976 255 0 0 
1.809282 0.278613 -1.370230 255 0 0 
1.878116 0.269182 -1.416462 255 0 0 
1.881520 0.265958 -1.412990 255 0 0 
1.864186 0.258520 -1.387086 255 0 0 
1.867565 0.250782 -1.381710 255 0 0 
1.870564 0.251457 -1.387774 255 0 0 
1.866142 0.244880 -1.378520 255 0 0 
1.865045 0.236992 -1.363086 255 0 0 
1.865416 0.233021 -1.364566 255 0 0 
1.862404 0.232372 -1.351979 255 0 0 
1.862389 0.232619 -1.358456 255 0 0 
1.864616 0.226143 -1.350645 255 0 0 
1.865541 0.220488 -1.340926 255 0 0 
1.867268 0.219348 -1.348421 255 0 0 
1.855771 0.218385 -1.333856 255 0 0 
1.860890 0.173742 -1.273621 255 0 0 
1.856802 0.144344 -1.238109 255 0 0 
1.853857 0.092544 -1.163883 255 0 0 
1.872338 0.061556 -1.138607 255 0 0 
1.870636 0.062792 -1.137454 255 0 0 
1.862342 0.064199 -1.135474 255 0 0 
2.015404 -0.383049 -0.670698 255 0 0 
2.008955 -0.381026 -0.665950 255 0 0 
1.878512 0.419303 -1.629570 255 0 0 
1.879297 0.410135 -1.618857 255 0 0 
1.885012 0.412223 -1.628682 255 0 0 
1.876123 0.408304 -1.609549 255 0 0 
1.871097 0.401579 -1.595659 255 0 0 
1.878165 0.390880 -1.592043 255 0 0 
1.875442 0.389414 -1.586594 255 0 0 
1.879029 0.383964 -1.583219 255 0 0 
1.878885 0.355701 -1.541991 255 0 0 
1.869365 0.335278 -1.503213 255 0 0 
1.779229 0.338920 -1.439851 255 0 0 
1.870610 0.327804 -1.498766 255 0 0 
1.864608 0.303988 -1.467759 255 0 0 
1.877728 0.301884 -1.468359 255 0 0 
1.851586 0.301625 -1.449394 255 0 0 
1.865153 0.294210 -1.445994 255 0 0 
1.869349 0.290675 -1.446894 255 0 0 
1.869508 0.290672 -1.446941 255 0 0 
1.867537 0.279560 -1.435826 255 0 0 
1.782272 0.284713 -1.373720 255 0 0 
1.782272 0.284713 -1.373720 255 0 0 
1.787569 0.284162 -1.368107 255 0 0 
1.864497 0.253089 -1.391336 255 0 0 
1.857645 0.249245 -1.389143 255 0 0 
1.866189 0.245642 -1.385108 255 0 0 
1.866879 0.236982 -1.378484 255 0 0 
1.870667 0.235609 -1.372798 255 0 0 
1.862548 0.226889 -1.362495 255 0 0 
1.863676 0.220584 -1.354678 255 0 0 
1.857751 0.207489 -1.328626 255 0 0 
1.852746 0.202574 -1.324543 255 0 0 
1.852563 0.201797 -1.317477 255 0 0 
1.849830 0.193183 -1.307631 255 0 0 
1.860440 0.168779 -1.283385 255 0 0 
1.861417 0.168543 -1.277336 255 0 0 
1.851129 0.166797 -1.273669 255 0 0 
1.857877 0.138790 -1.242227 255 0 0 
1.860131 0.100719 -1.192662 255 0 0 
1.860248 0.085859 -1.169852 255 0 0 
1.880255 -0.023593 -1.043862 255 0 0 
2.014108 -0.383221 -0.681937 255 0 0 
1.879058 0.413570 -1.634621 255 0 0 
1.871335 0.401712 -1.603640 255 0 0 
1.874023 0.400892 -1.614232 255 0 0 
1.873457 0.394317 -1.604016 255 0 0 
1.881377 0.385489 -1.595239 255 0 0 
1.878039 0.355774 -1.549693 255 0 0 
1.774611 0.335889 -1.436488 255 0 0 
1.865281 0.308268 -1.486145 255 0 0 
1.871262 0.306988 -1.479115 255 0 0 
1.792990 0.310796 -1.421054 255 0 0 
1.851426 0.294873 -1.446967 255 0 0 
1.867868 0.278921 -1.443594 255 0 0 
1.776757 0.282309 -1.370122 255 0 0 
1.787403 0.279607 -1.376422 255 0 0 
1.787403 0.279607 -1.376422 255 0 0 
1.806270 0.270922 -1.385469 255 0 0 
1.810134 0.270514 -1.385792 255 0 0 
1.810134 0.270514 -1.385792 255 0 0 
1.861947 0.238725 -1.383775 255 0 0 
1.865132 0.231684 -1.381896 255 0 0 
1.865416 0.231072 -1.375093 255 0 0 
1.865637 0.225732 -1.370700 255 0 0 
1.864489 0.227488 -1.368289 255 0 0 
1.859474 0.222398 -1.365175 255 0 0 
1.850626 0.196798 -1.317867 255 0 0 
1.849912 0.191679 -1.314697 255 0 0 
1.844097 0.179925 -1.295490 255 0 0 
1.850184 0.177271 -1.294075 255 0 0 
1.862147 0.137361 -1.250891 255 0 0 
1.861503 0.082216 -1.180521 255 0 0 
1.863775 0.053016 -1.146627 255 0 0 
1.862205 0.051772 -1.139225 255 0 0 
1.864280 0.017850 -1.097472 255 0 0 
1.885088 -0.058182 -1.017709 255 0 0 
1.912497 -0.125562 -0.944459 255 0 0 
1.928246 -0.252425 -0.796379 255 0 0 
1.934949 -0.257068 -0.790578 255 0 0 
1.968799 -0.315578 -0.741828 255 0 0 
2.004190 -0.376836 -0.691362 255 0 0 
2.014095 -0.383032 -0.688600 255 0 0 
2.009495 -0.380363 -0.692537 255 0 0 
1.883042 0.406394 -1.642101 255 0 0 
1.882730 0.404446 -1.634540 255 0 0 
1.877247 0.402818 -1.623598 255 0 0 
1.870128 0.394388 -1.608804 255 0 0 
1.871578 0.387847 -1.607863 255 0 0 
1.874559 0.385473 -1.598928 255 0 0 
1.880512 0.379885 -1.599278 255 0 0 
1.881086 0.380536 -1.600897 255 0 0 
1.882439 0.381601 -1.603833 255 0 0 
1.862237 0.348399 -1.544145 255 0 0 
1.777059 0.334282 -1.445922 255 0 0 
1.779504 0.332685 -1.455480 255 0 0 
1.787472 0.327872 -1.449065 255 0 0 
1.790435 0.294497 -1.410532 255 0 0 
1.852929 0.289931 -1.451651 255 0 0 
1.790335 0.272171 -1.383397 255 0 0 
1.787811 0.273672 -1.381408 255 0 0 
1.790335 0.272171 -1.383397 255 0 0 
1.787753 0.273677 -1.381361 255 0 0 
1.787753 0.273677 -1.381361 255 0 0 
1.802408 0.265552 -1.386095 255 0 0 
1.814745 0.255795 -1.384041 255 0 0 
1.828467 0.256088 -1.386102 255 0 0 
1.850090 0.246831 -1.396980 255 0 0 
1.839843 0.247429 -1.391029 255 0 0 
1.852620 0.242972 -1.391969 255 0 0 
1.850551 0.241499 -1.394219 255 0 0 
1.850551 0.241499 -1.394219 255 0 0 
1.853012 0.237470 -1.389468 255 0 0 
1.860342 0.233282 -1.387514 255 0 0 
1.864712 0.226245 -1.385643 255 0 0 
1.863661 0.226091 -1.377074 255 0 0 
1.861677 0.222605 -1.370456 255 0 0 
1.856958 0.217649 -1.368081 255 0 0 
1.862020 0.213720 -1.361627 255 0 0 
1.858676 0.210030 -1.358312 255 0 0 
1.864205 0.206329 -1.360748 255 0 0 
1.839214 0.198898 -1.329610 255 0 0 
1.836057 0.184341 -1.306868 255 0 0 
1.846853 0.172563 -1.296624 255 0 0 
1.859624 0.132565 -1.254011 255 0 0 
1.853372 0.102829 -1.211540 255 0 0 
1.856607 0.070500 -1.174839 255 0 0 
1.863543 0.063325 -1.161202 255 0 0 
1.865160 0.062444 -1.161976 255 0 0 
1.874755 0.013208 -1.107427 255 0 0 
1.873543 -0.011651 -1.078374 255 0 0 
1.880864 -0.030009 -1.061545 255 0 0 
1.886326 -0.068883 -1.013074 255 0 0 
1.923092 -0.193057 -0.872684 255 0 0 
1.929125 -0.253946 -0.801054 255 0 0 
1.863405 -0.234606 -0.771368 255 0 0 
2.014719 -0.398807 -0.679356 255 0 0 
1.912943 -0.363093 -0.643178 255 0 0 
1.886952 0.406726 -1.652762 255 0 0 
1.876453 0.396087 -1.631035 255 0 0 
1.872218 0.394634 -1.618373 255 0 0 
1.867079 0.388156 -1.611880 255 0 0 
1.856352 0.349666 -1.549913 255 0 0 
1.775505 0.325344 -1.450706 255 0 0 
1.790882 0.317590 -1.455677 255 0 0 
1.863197 0.302662 -1.497135 255 0 0 
1.795671 0.295304 -1.424222 255 0 0 
1.772105 0.274162 -1.379050 255 0 0 
1.770901 0.275779 -1.381684 255 0 0 
1.806653 0.260186 -1.385001 255 0 0 
1.809213 0.254317 -1.388342 255 0 0 
1.822997 0.249645 -1.386658 255 0 0 
1.834027 0.241790 -1.391081 255 0 0 
1.850017 0.232848 -1.392140 255 0 0 
1.859768 0.220137 -1.379963 255 0 0 
1.852162 0.212981 -1.369020 255 0 0 
1.848830 0.207159 -1.357172 255 0 0 
1.851787 0.206599 -1.351582 255 0 0 
1.853099 0.200947 -1.349202 255 0 0 
1.849131 0.198121 -1.338083 255 0 0 
1.831666 0.191780 -1.319282 255 0 0 
1.860086 0.190680 -1.338080 255 0 0 
1.838538 0.192706 -1.327234 255 0 0 
1.837383 0.188199 -1.316158 255 0 0 
1.846703 0.131062 -1.256369 255 0 0 
1.853562 0.107038 -1.229262 255 0 0 
1.849816 0.101999 -1.220228 255 0 0 
1.877582 -0.027945 -1.070325 255 0 0 
1.881312 -0.062354 -1.021529 255 0 0 
1.930656 -0.255835 -0.816380 255 0 0 
1.925322 -0.259042 -0.806042 255 0 0 
2.036686 -0.401906 -0.704250 255 0 0 
1.912346 -0.368267 -0.644160 255 0 0 
1.877234 0.400353 -1.642674 255 0 0 
1.877478 0.392302 -1.641700 255 0 0 
1.873613 0.390362 -1.631712 255 0 0 
1.870740 0.388433 -1.622626 255 0 0 
1.866192 0.381341 -1.616941 255 0 0 
